0.383720 -0.487493 3.028883
0.392416 -0.482763 2.999500
0.401107 -0.478317 2.971871
0.412091 -0.476789 2.962380
0.422166 -0.474328 2.947086
0.431796 -0.471519 2.929634
0.442007 -0.469480 2.916967
0.453728 -0.469111 2.914675
0.462345 -0.465636 2.893085
0.488219 -0.479276 2.977834
0.480311 -0.459899 2.857437
0.505175 -0.472078 2.933108
0.503198 -0.459191 2.853042
0.516600 -0.460608 2.861845
0.528857 -0.460964 2.864054
0.541342 -0.461498 2.867374
0.555360 -0.463288 2.878496
0.569044 -0.464730 2.887456
0.582587 -0.466000 2.895343
0.602330 -0.472078 2.933108
0.612779 -0.470775 2.925015
0.640544 -0.482568 2.998288
0.648243 -0.479084 2.976640
0.707387 -0.513040 3.187613
0.779880 -0.555257 3.449913
0.796386 -0.556810 3.459563
0.814507 -0.559418 3.475767
0.834763 -0.563376 3.500360
0.848856 -0.563110 3.498709
0.858485 -0.559942 3.479026
0.868007 -0.556810 3.459563
0.774703 -0.488889 3.037562
0.789218 -0.490093 3.045040
0.809130 -0.494558 3.072780
0.818127 -0.492315 3.058847
0.832164 -0.493128 3.063899
0.846598 -0.494148 3.070237
0.858599 -0.493740 3.067699
0.870581 -0.493332 3.065164
0.884368 -0.493944 3.068967
0.898190 -0.494558 3.072780
0.910912 -0.494558 3.072780
0.930959 -0.498480 3.097147
0.945757 -0.499522 3.103623
0.949867 -0.494968 3.075326
0.964599 -0.495995 3.081712
0.980208 -0.497441 3.090697
0.981963 -0.491910 3.056327
0.993390 -0.491303 3.052556
1.133298 -0.553455 3.438722
1.297214 -0.625645 3.887251
1.139076 -0.542643 3.371542
1.180387 -0.555515 3.451518
1.254179 -0.583182 3.623420
1.310122 -0.601994 3.740304
1.370510 -0.622385 3.866995
1.417546 -0.636312 3.953523
1.418050 -0.629271 3.909780
1.439548 -0.631601 3.924253
1.433807 -0.622061 3.864981
1.429705 -0.613434 3.811383
1.436631 -0.609677 3.788036
1.431130 -0.600783 3.732778
1.449502 -0.601994 3.740304
1.419207 -0.583182 3.623420
1.803237 -0.710927 4.417121
1.821526 -0.710927 4.417121
1.904430 -0.735895 4.572251
1.834086 -0.701737 4.360025
1.861985 -0.705468 4.383203
1.875701 -0.703805 4.372871
1.898282 -0.705468 4.383203
1.913040 -0.704220 4.375450
1.941459 -0.707977 4.398793
1.965497 -0.710081 4.411869
1.972040 -0.705885 4.385794
1.991376 -0.706302 4.388387
2.011926 -0.707138 4.393584
1.998175 -0.696012 4.324454
2.066663 -0.713475 4.432953
2.078808 -0.711350 4.419752
2.103372 -0.713475 4.432953
2.120460 -0.713049 4.430306
2.146492 -0.715612 4.446233
2.187243 -0.716901 4.454239
2.279573 -0.740916 4.603451
2.288695 -0.737713 4.583547
2.487432 -0.795178 4.940588
2.417745 -0.766596 4.763006
2.435903 -0.766104 4.759951
2.463512 -0.768569 4.775266
2.465830 -0.763167 4.741702
2.485462 -0.763167 4.741702
2.503496 -0.762680 4.738674
2.523116 -0.762680 4.738674
2.542736 -0.762680 4.738674
2.583806 -0.769064 4.778341
2.628983 -0.776565 4.824944
2.611603 -0.765613 4.756899
2.762333 -0.803739 4.993784
2.749702 -0.794120 4.934018
2.792411 -0.800507 4.973702
2.909026 -0.804281 4.997147
2.921847 -0.802120 4.983723
-1.332286 -0.465453 2.968305
-1.194065 -0.441606 2.816229
-1.150480 -0.442782 2.823730
-0.678970 -0.272386 1.737070
-0.674303 -0.273410 1.743600
-0.672137 -0.275481 1.756809
-0.713512 -0.295638 1.885356
-0.711490 -0.298061 1.900810
-0.677753 -0.287104 1.830931
-0.679052 -0.290908 1.855191
-0.676955 -0.293328 1.870623
-0.694780 -0.304536 1.942100
-0.691626 -0.306703 1.955921
-0.696353 -0.316204 2.016512
-0.682257 -0.313563 1.999667
-0.685805 -0.319065 2.034758
-0.681303 -0.320913 2.046542
-0.528862 -0.292811 1.867328
-0.497061 -0.292296 1.864045
-0.489712 -0.292517 1.865451
-0.482352 -0.292737 1.866859
-0.474622 -0.292737 1.866859
-0.469372 -0.294292 1.876774
-0.459278 -0.292811 1.867328
-0.451774 -0.292959 1.868269
-0.444262 -0.293106 1.869210
-0.436083 -0.292811 1.867328
-0.428783 -0.293106 1.869210
-0.421256 -0.293254 1.870152
-0.413826 -0.293476 1.871567
-0.405872 -0.293328 1.870623
-0.397826 -0.293106 1.869210
-0.390578 -0.293476 1.871567
-0.374517 -0.287104 1.830931
-0.373948 -0.292590 1.865920
-0.364481 -0.291199 1.857048
-0.348167 -0.310965 1.983101
-0.340047 -0.311048 1.983631
-0.333617 -0.312720 1.994293
-0.322156 -0.309641 1.974658
-0.314399 -0.310054 1.977288
-0.305967 -0.309806 1.975709
-0.297312 -0.309312 1.972558
-0.289145 -0.309312 1.972558
-0.281052 -0.309394 1.973082
-0.272593 -0.309065 1.970986
-0.264011 -0.308574 1.967850
-0.256135 -0.308901 1.969940
-0.247257 -0.308002 1.964204
-0.233741 -0.301069 1.919990
-0.231359 -0.308492 1.967328
-0.216665 -0.299442 1.909615
-0.184500 -0.521340 3.324715
-0.155436 -0.516252 3.292264
-0.147226 -0.535989 3.418131
-0.129727 -0.522511 3.332179
-0.113985 -0.513745 3.276275
-0.101135 -0.517400 3.299583
-0.086283 -0.510365 3.254721
-0.068285 -0.478664 3.052556
-0.053723 -0.462125 2.947086
-0.041787 -0.465081 2.965932
-0.029354 -0.462677 2.950602
-0.016705 -0.451020 2.876265
-0.004774 -0.448932 2.862949
0.007130 -0.452071 2.882969
0.019246 -0.456326 2.910103
0.030847 -0.449800 2.868482
0.042741 -0.449973 2.869591
0.054728 -0.450845 2.875150
0.066427 -0.449452 2.866266
0.078415 -0.450148 2.870701
0.090023 -0.448759 2.861845
0.101481 -0.447035 2.850850
0.114295 -0.451020 2.876265
0.126942 -0.453658 2.893085
0.138059 -0.450845 2.875150
0.147788 -0.444304 2.833434
0.166579 -0.463968 2.958837
0.181655 -0.471297 3.005574
0.197703 -0.480046 3.061371
0.217466 -0.496218 3.164505
0.234671 -0.505048 3.220817
0.253509 -0.516252 3.292264
0.263631 -0.509471 3.249021
0.272667 -0.501349 3.197227
0.285167 -0.500057 3.188983
0.296840 -0.497491 3.172622
0.308657 -0.495373 3.159116
0.320917 -0.494111 3.151067
0.333116 -0.492855 3.143059
0.344960 -0.491191 3.132445
0.356426 -0.489126 3.119278
0.368721 -0.488305 3.114042
0.376402 -0.481636 3.071508
0.385292 -0.476898 3.041296
0.394169 -0.472445 3.012896
0.402396 -0.467510 2.981423
0.413246 -0.465825 2.970682
0.424357 -0.464524 2.962380
0.434714 -0.462493 2.949429
0.445509 -0.461027 2.940080
0.455517 -0.458845 2.926168
0.463248 -0.454544 2.898736
0.489200 -0.467886 2.983821
0.480311 -0.448068 2.857437
0.505574 -0.460297 2.935428
0.503198 -0.447379 2.853042
0.516799 -0.448932 2.862949
0.529061 -0.449279 2.865160
0.540924 -0.449279 2.865160
0.553856 -0.450148 2.870701
0.567279 -0.451370 2.878496
0.581000 -0.452775 2.887456
0.599015 -0.457402 2.916967
0.605146 -0.452951 2.888580
0.635919 -0.466760 2.976640
0.639269 -0.460297 2.935428
0.686165 -0.484846 3.091985
0.769859 -0.534021 3.405582
0.782164 -0.532798 3.397785
0.803963 -0.537971 3.430773
0.823882 -0.541728 3.454731
0.837017 -0.540972 3.449913
0.845796 -0.537474 3.427604
0.854071 -0.533776 3.404020
0.772174 -0.474758 3.027647
0.786314 -0.475728 3.033836
0.806459 -0.480244 3.062634
0.816780 -0.478861 3.053812
0.831477 -0.480046 3.061371
0.845898 -0.481038 3.067699
0.857536 -0.480442 3.063899
0.869863 -0.480244 3.062634
0.883637 -0.480839 3.066431
0.897446 -0.481436 3.070237
0.910159 -0.481436 3.070237
0.929408 -0.484846 3.091985
0.944177 -0.485859 3.098440
0.948295 -0.481436 3.070237
0.962999 -0.482434 3.076602
0.976548 -0.482835 3.079155
0.943332 -0.454544 2.898736
0.995383 -0.473599 3.020254
1.023298 -0.480839 3.066431
1.045935 -0.485453 3.095854
1.062299 -0.487079 3.106221
1.101440 -0.498984 3.182145
1.154211 -0.516710 3.295188
1.185757 -0.524631 3.345700
1.154832 -0.505048 3.220817
1.106686 -0.478467 3.051301
1.281631 -0.547849 3.493768
1.361479 -0.575485 3.670011
1.378720 -0.576340 3.675465
1.372951 -0.549661 3.505320
1.806463 -0.693877 4.425023
1.820442 -0.692226 4.414493
1.834086 -0.683685 4.360025
1.860885 -0.686913 4.380616
1.872391 -0.684489 4.365155
1.894924 -0.686103 4.375450
1.910787 -0.685295 4.370296
1.940309 -0.689355 4.396187
1.961998 -0.690583 4.404014
1.968550 -0.686508 4.378031
1.989024 -0.687319 4.383203
2.009546 -0.688132 4.388387
1.997011 -0.677712 4.321935
2.064197 -0.694291 4.427663
2.078808 -0.693050 4.419752
2.103372 -0.695120 4.432953
2.119194 -0.694291 4.427663
2.145207 -0.696785 4.443571
2.183311 -0.697203 4.446233
2.272524 -0.719624 4.589216
2.281648 -0.716522 4.569435
2.477535 -0.771639 4.920930
2.414646 -0.745918 4.756899
2.431225 -0.744963 4.750809
2.457187 -0.746875 4.763006
2.461112 -0.742112 4.732629
2.480707 -0.742112 4.732629
2.500303 -0.742112 4.732629
2.519898 -0.742112 4.732629
2.537874 -0.741639 4.729613
2.578824 -0.747835 4.769128
2.627275 -0.756096 4.821808
2.606591 -0.744486 4.747769
2.762333 -0.783063 4.993784
2.749702 -0.773691 4.934018
2.796159 -0.780961 4.980378
2.923810 -0.782010 4.987072
-1.111566 -0.416510 2.728222
-0.678448 -0.267826 1.754318
-0.693142 -0.276588 1.811710
-0.702096 -0.283227 1.855191
-0.656191 -0.267637 1.753074
-0.654343 -0.269868 1.767690
-0.656406 -0.273781 1.793321
-0.655635 -0.276588 1.811710
-0.680009 -0.290191 1.900810
-0.715006 -0.316101 2.070525
-0.690067 -0.308778 2.022557
-0.694372 -0.314521 2.060179
-0.700824 -0.321392 2.105181
-0.528729 -0.285008 1.866859
-0.497061 -0.284578 1.864045
-0.489712 -0.284793 1.865451
-0.482352 -0.285008 1.866859
-0.474622 -0.285008 1.866859
-0.469372 -0.286522 1.876774
-0.459278 -0.285080 1.867328
-0.451660 -0.285151 1.867798
-0.444262 -0.285367 1.869210
-0.436083 -0.285080 1.867328
-0.428783 -0.285367 1.869210
-0.421256 -0.285511 1.870152
-0.413721 -0.285655 1.871095
-0.405872 -0.285583 1.870623
-0.397726 -0.285295 1.868739
-0.390480 -0.285655 1.871095
-0.374425 -0.279454 1.830479
-0.374230 -0.285080 1.867328
-0.364664 -0.283652 1.857978
-0.347888 -0.302512 1.981512
-0.339774 -0.302592 1.982041
-0.333527 -0.304381 1.993757
-0.322071 -0.301385 1.974132
-0.314399 -0.301867 1.977288
-0.306049 -0.301706 1.976235
-0.297391 -0.301225 1.973082
-0.289221 -0.301225 1.973082
-0.281127 -0.301305 1.973607
-0.272665 -0.300985 1.971510
-0.264151 -0.300585 1.968894
-0.256271 -0.300905 1.970986
-0.247519 -0.300187 1.966286
-0.233681 -0.293043 1.919494
-0.231727 -0.300825 1.970463
-0.216888 -0.291836 1.911582
-0.182537 -0.502175 3.289345
-0.169218 -0.503067 3.295188
-0.152859 -0.494287 3.237680
-0.138727 -0.491713 3.220817
-0.121388 -0.476011 3.117968
-0.111475 -0.489165 3.204129
-0.097202 -0.484148 3.171266
-0.084979 -0.489376 3.205513
-0.068285 -0.466025 3.052556
-0.053787 -0.450460 2.950602
-0.041837 -0.453344 2.969493
-0.029295 -0.449566 2.944747
-0.016699 -0.438941 2.875150
-0.004779 -0.437584 2.866266
0.007124 -0.439793 2.880731
0.019261 -0.444626 2.912387
0.030847 -0.437923 2.868482
0.042724 -0.437923 2.868482
0.054728 -0.438941 2.875150
0.066452 -0.437754 2.867374
0.078476 -0.438601 2.872924
0.090023 -0.436909 2.861845
0.101559 -0.435566 2.853042
0.114428 -0.439622 2.879613
0.126892 -0.441507 2.891958
0.138488 -0.440306 2.884090
0.148354 -0.434230 2.844294
0.167113 -0.453162 2.968305
0.182989 -0.462222 3.027647
0.199514 -0.471651 3.089410
0.218304 -0.484977 3.176697
0.234671 -0.491713 3.220817
0.253172 -0.501952 3.287888
0.263631 -0.496018 3.249021
0.273019 -0.488743 3.201365
0.285290 -0.487062 3.190354
0.297222 -0.484977 3.176697
0.309052 -0.482910 3.163156
0.321463 -0.481883 3.156428
0.333398 -0.480248 3.145724
0.344960 -0.478221 3.132445
0.356876 -0.476812 3.123217
0.369186 -0.476011 3.117968
0.377026 -0.469696 3.076602
0.386719 -0.466025 3.052556
0.395776 -0.461845 3.025178
0.404999 -0.458110 3.000713
0.416413 -0.457001 2.993450
0.426913 -0.454982 2.980226
0.437671 -0.453344 2.969493
0.447637 -0.450998 2.954125
0.454978 -0.446202 2.922711
0.460192 -0.439622 2.879613
0.489594 -0.455898 2.986223
0.479388 -0.435398 2.851946
0.505774 -0.448321 2.936590
0.503004 -0.435398 2.851946
0.516600 -0.436909 2.861845
0.528653 -0.437078 2.862949
0.540090 -0.436741 2.860741
0.552787 -0.437416 2.865160
0.565742 -0.438262 2.870701
0.579197 -0.439452 2.878496
0.595039 -0.442369 2.897604
0.598852 -0.436405 2.858537
0.630106 -0.450281 2.949429
0.626384 -0.439111 2.876265
0.677973 -0.466408 3.055069
0.697514 -0.471063 3.085556
0.724140 -0.480248 3.145724
0.773564 -0.503962 3.301051
0.802584 -0.513790 3.365425
0.785868 -0.494503 3.239093
0.752939 -0.465833 3.051301
0.770324 -0.468724 3.070237
0.770602 -0.461281 3.021483
0.784710 -0.462222 3.027647
0.805462 -0.466985 3.058847
0.816444 -0.466025 3.052556
0.831134 -0.467178 3.060108
0.845199 -0.467950 3.065164
0.856828 -0.467371 3.061371
0.869145 -0.467178 3.060108
0.883272 -0.467950 3.065164
0.897075 -0.468530 3.068967
0.910159 -0.468724 3.070237
0.930183 -0.472438 3.094563
0.944571 -0.473227 3.099734
0.949474 -0.469307 3.074053
0.965401 -0.470867 3.084274
0.983485 -0.473425 3.101029
0.993005 -0.471848 3.090697
1.017241 -0.477214 3.125848
1.038936 -0.481269 3.152406
1.057831 -0.483941 3.169912
1.068673 -0.482910 3.163156
1.076721 -0.480656 3.148393
1.096737 -0.483734 3.168558
1.149617 -0.501064 3.282071
1.131186 -0.487271 3.191726
1.094502 -0.466025 3.052556
1.051351 -0.442541 2.898736
1.012717 -0.421468 2.760700
1.012099 -0.416510 2.728222
1.394607 -0.567588 3.717817
1.410940 -0.549954 3.602312
1.809700 -0.676766 4.432953
1.818279 -0.673147 4.409247
1.834086 -0.665632 4.360025
1.859788 -0.668381 4.378031
1.871291 -0.666024 4.362588
1.894924 -0.667987 4.375450
1.908539 -0.666415 4.365155
1.939160 -0.670756 4.393584
1.960834 -0.671949 4.401402
1.968550 -0.668381 4.378031
1.987850 -0.668776 4.380616
2.008359 -0.669566 4.385794
1.997011 -0.659817 4.321935
2.065429 -0.676362 4.430306
2.080047 -0.675153 4.422386
2.105888 -0.677575 4.438255
2.119194 -0.675958 4.427663
2.147779 -0.679200 4.448899
2.182003 -0.678387 4.443571
2.268316 -0.699325 4.580718
2.274645 -0.695461 4.555410
2.466087 -0.747793 4.898193
2.411554 -0.725292 4.750809
2.423467 -0.722978 4.735650
2.449327 -0.724828 4.747769
2.454849 -0.720678 4.720587
2.474395 -0.720678 4.720587
2.492355 -0.720220 4.717586
2.513486 -0.720678 4.720587
2.531421 -0.720220 4.717586
2.575514 -0.727154 4.763006
2.628983 -0.736610 4.824944
2.604924 -0.724365 4.744733
2.764193 -0.762900 4.997147
2.751532 -0.753763 4.937301
2.798037 -0.760850 4.983723
2.919886 -0.760340 4.980378
-0.676050 -0.259642 1.748119
-0.672297 -0.260995 1.757225
-0.707936 -0.277837 1.870623
-0.650049 -0.257941 1.736663
-0.644215 -0.258485 1.740329
-0.635370 -0.257820 1.735851
-0.630987 -0.258971 1.743600
-0.696056 -0.288983 1.945664
-0.700863 -0.294386 1.982041
-0.719963 -0.305991 2.060179
-0.723688 -0.311263 2.095669
-0.694039 -0.302133 2.034200
-0.697860 -0.307528 2.070525
-0.528729 -0.277278 1.866859
-0.496936 -0.276791 1.863577
-0.489588 -0.276999 1.864982
-0.482352 -0.277278 1.866859
-0.474502 -0.277208 1.866389
-0.469135 -0.278610 1.875825
-0.459163 -0.277278 1.866859
-0.451546 -0.277348 1.867328
-0.444150 -0.277557 1.868739
-0.435974 -0.277278 1.866859
-0.428675 -0.277557 1.868739
-0.421150 -0.277697 1.869681
-0.413617 -0.277837 1.870623
-0.405770 -0.277767 1.870152
-0.397726 -0.277557 1.868739
-0.390480 -0.277907 1.871095
-0.374148 -0.271674 1.829126
-0.374230 -0.277348 1.867328
-0.365304 -0.276444 1.861240
-0.347888 -0.294307 1.981512
-0.339774 -0.294386 1.982041
-0.333527 -0.296126 1.993757
-0.321985 -0.293133 1.973607
-0.314315 -0.293602 1.976762
-0.305967 -0.293445 1.975709
-0.297391 -0.293055 1.973082
-0.289221 -0.293055 1.973082
-0.281127 -0.293133 1.973607
-0.272738 -0.292899 1.972034
-0.264221 -0.292511 1.969417
-0.256271 -0.292744 1.970986
-0.247584 -0.292123 1.966807
-0.233862 -0.285317 1.920985
-0.232220 -0.293289 1.974658
-0.217392 -0.284581 1.916025
-0.168918 -0.488555 3.289345
-0.153799 -0.483837 3.257578
-0.142691 -0.492045 3.312841
-0.120376 -0.459242 3.091985
-0.111187 -0.474669 3.195850
-0.098720 -0.478377 3.220817
-0.086359 -0.483837 3.257578
-0.066507 -0.441579 2.973062
-0.053237 -0.433759 2.920410
-0.041472 -0.437200 2.943579
-0.029237 -0.436507 2.938916
-0.016705 -0.427202 2.876265
-0.004778 -0.425552 2.865160
0.007135 -0.428531 2.885211
0.019208 -0.431382 2.904408
0.030835 -0.425881 2.867374
0.042741 -0.426211 2.869591
0.054792 -0.427533 2.878496
0.066529 -0.426376 2.870701
0.078537 -0.427036 2.875150
0.090232 -0.426046 2.868482
0.101676 -0.424242 2.856337
0.114516 -0.428031 2.881850
0.127239 -0.430708 2.899868
0.138920 -0.429700 2.893085
0.150196 -0.427699 2.879613
0.168528 -0.444607 2.993450
0.184571 -0.453572 3.053812
0.201443 -0.463296 3.119278
0.219525 -0.474464 3.194474
0.235387 -0.479835 3.230633
0.253509 -0.488989 3.292264
0.264094 -0.483413 3.254721
0.273610 -0.476516 3.208285
0.286028 -0.475078 3.198605
0.298115 -0.473242 3.186244
0.310109 -0.471420 3.173979
0.322561 -0.470414 3.167206
0.334390 -0.468614 3.155086
0.345836 -0.466433 3.140399
0.358081 -0.465448 3.133768
0.370431 -0.464663 3.128484
0.378124 -0.458287 3.085556
0.387675 -0.454508 3.060108
0.397721 -0.451528 3.040050
0.406479 -0.447314 3.011673
0.417931 -0.446227 3.004358
0.427945 -0.443712 2.987425
0.439077 -0.442465 2.979030
0.449247 -0.440344 2.964747
0.455876 -0.434957 2.928478
0.461446 -0.428864 2.887456
0.490581 -0.444428 2.992243
0.478652 -0.422940 2.847568
0.506175 -0.436507 2.938916
0.502618 -0.423264 2.849755
0.516003 -0.424569 2.858537
0.527838 -0.424569 2.858537
0.539051 -0.424079 2.855238
0.551085 -0.424242 2.856337
0.563780 -0.424896 2.860741
0.576513 -0.425552 2.865160
0.589743 -0.426541 2.871812
0.592688 -0.420199 2.829113
0.620488 -0.431382 2.904408
0.615177 -0.419559 2.824805
0.666449 -0.446046 3.003142
0.678061 -0.445506 2.999500
0.697813 -0.450237 3.031358
0.725176 -0.459625 3.094563
0.740150 -0.460971 3.103623
0.736671 -0.450974 3.036319
0.748936 -0.450790 3.035077
0.762438 -0.451343 3.038805
0.769349 -0.448041 3.016570
0.783432 -0.448953 3.022714
0.804136 -0.453572 3.053812
0.816444 -0.453386 3.052556
0.830792 -0.454320 3.058847
0.844501 -0.454883 3.062634
0.856122 -0.454320 3.058847
0.868787 -0.454320 3.058847
0.883272 -0.455258 3.065164
0.898934 -0.456768 3.075326
0.912045 -0.456957 3.076602
0.935645 -0.462324 3.112736
0.951727 -0.463881 3.123217
0.957406 -0.460393 3.099734
0.975128 -0.462712 3.115350
1.008346 -0.472228 3.179419
1.025024 -0.473852 3.190354
1.057788 -0.482777 3.250444
1.079283 -0.486399 3.274829
1.090917 -0.485542 3.269058
1.092421 -0.480253 3.233448
1.112109 -0.482989 3.251868
1.106660 -0.474873 3.197227
1.154211 -0.489423 3.295188
1.174111 -0.492045 3.312841
1.134158 -0.469813 3.163156
1.087898 -0.445506 2.999500
1.022609 -0.414042 2.787664
1.008392 -0.403729 2.718228
1.419207 -0.538174 3.623420
1.809700 -0.658411 4.432953
1.819360 -0.655280 4.411869
1.834086 -0.647580 4.360025
1.857596 -0.649488 4.372871
1.869093 -0.647200 4.357465
1.892692 -0.649105 4.370296
1.907417 -0.647960 4.362588
1.938013 -0.652178 4.390984
1.958511 -0.652951 4.396187
1.966230 -0.649488 4.372871
1.986677 -0.650254 4.378031
2.007172 -0.651022 4.383203
1.997011 -0.641922 4.321935
2.062966 -0.657234 4.425023
2.081287 -0.657234 4.425023
2.107148 -0.659593 4.440911
2.119194 -0.657626 4.427663
2.184620 -0.660780 4.448899
2.273930 -0.682043 4.592056
2.276042 -0.677015 4.558208
2.461213 -0.726074 4.888513
2.411554 -0.705621 4.750809
2.421921 -0.702921 4.732629
2.446197 -0.704269 4.741702
2.453289 -0.700687 4.717586
2.474395 -0.701133 4.720587
2.492355 -0.700687 4.717586
2.515086 -0.701579 4.723592
2.533031 -0.701133 4.720587
2.575514 -0.707433 4.763006
2.632406 -0.717566 4.831226
2.606591 -0.705170 4.747769
2.755198 -0.734298 4.943880
2.805574 -0.742209 4.997147
2.925776 -0.741211 4.990426
-0.674937 -0.251989 1.745241
-0.667084 -0.251752 1.743600
-0.658781 -0.251338 1.740737
-0.647171 -0.249640 1.728976
-0.641207 -0.250106 1.732204
-0.634628 -0.250340 1.733823
-0.629951 -0.251338 1.740737
-0.703060 -0.283754 1.965244
-0.709463 -0.296638 2.054475
-0.702902 -0.297461 2.060179
-0.693795 -0.297214 2.058464
-0.695497 -0.301648 2.089179
-0.528596 -0.269481 1.866389
-0.496686 -0.268940 1.862641
-0.489465 -0.269210 1.864513
-0.482109 -0.269413 1.865920
-0.474264 -0.269345 1.865451
-0.468779 -0.270638 1.874403
-0.458932 -0.269413 1.865920
-0.451433 -0.269549 1.866859
-0.443815 -0.269616 1.867328
-0.435645 -0.269345 1.865451
-0.428352 -0.269616 1.867328
-0.420832 -0.269752 1.868269
-0.413409 -0.269956 1.869681
-0.405463 -0.269820 1.868739
-0.397425 -0.269616 1.867328
-0.390185 -0.269956 1.869681
-0.373503 -0.263646 1.825975
-0.373479 -0.269075 1.863577
-0.363390 -0.267329 1.851488
-0.347702 -0.285950 1.980454
-0.339683 -0.286103 1.981512
-0.333348 -0.287716 1.992686
-0.321899 -0.284886 1.973082
-0.314315 -0.285417 1.976762
-0.305967 -0.285265 1.975709
-0.297391 -0.284886 1.973082
-0.289298 -0.284962 1.973607
-0.281202 -0.285037 1.974132
-0.272738 -0.284734 1.972034
-0.264291 -0.284432 1.969940
-0.256271 -0.284583 1.970986
-0.247519 -0.283904 1.966286
-0.233862 -0.277364 1.920985
-0.232220 -0.285113 1.974658
-0.217224 -0.276433 1.914541
-0.156408 -0.478328 3.312841
-0.116352 -0.431516 2.988628
-0.110521 -0.458671 3.176697
-0.088848 -0.418537 2.898736
-0.080891 -0.440566 3.051301
-0.064844 -0.418537 2.898736
-0.052842 -0.418537 2.898736
-0.040570 -0.415776 2.879613
-0.029168 -0.423333 2.931949
-0.016718 -0.415615 2.878496
-0.004768 -0.412892 2.859639
0.007146 -0.417233 2.889705
0.019089 -0.416747 2.886333
0.030764 -0.413051 2.860741
0.042658 -0.413530 2.864054
0.054834 -0.415938 2.880731
0.066529 -0.414490 2.870701
0.078598 -0.415454 2.877380
0.090582 -0.415776 2.879613
0.101833 -0.413051 2.860741
0.114516 -0.416099 2.881850
0.127588 -0.419849 2.907822
0.139300 -0.418864 2.901002
0.153290 -0.424339 2.938916
0.169554 -0.434844 3.011673
0.185487 -0.443116 3.068967
0.202893 -0.453622 3.141729
0.219337 -0.460841 3.191726
0.234570 -0.464840 3.219420
0.252724 -0.473886 3.282071
0.263747 -0.469319 3.250444
0.273373 -0.462832 3.205513
0.286151 -0.462033 3.199984
0.298499 -0.460643 3.190354
0.310641 -0.459064 3.179419
0.323251 -0.458279 3.173979
0.334960 -0.456327 3.160461
0.345690 -0.453238 3.139071
0.358384 -0.452855 3.136417
0.371057 -0.452473 3.133768
0.378911 -0.446440 3.091985
0.388637 -0.442933 3.067699
0.400181 -0.441655 3.058847
0.410982 -0.439662 3.045040
0.423416 -0.439481 3.043791
0.433176 -0.436616 3.023946
0.445334 -0.436260 3.021483
0.453779 -0.432387 2.994658
0.461154 -0.427727 2.962380
0.465613 -0.420673 2.913531
0.491970 -0.433261 3.000713
0.478836 -0.411307 2.848661
0.507179 -0.425181 2.944747
0.503004 -0.411781 2.851946
0.516003 -0.412733 2.858537
0.527432 -0.412415 2.856337
0.538223 -0.411623 2.850850
0.549815 -0.411465 2.849755
0.561830 -0.411623 2.850850
0.573855 -0.411781 2.851946
0.586565 -0.412415 2.856337
0.589989 -0.406624 2.816229
0.614952 -0.415615 2.878496
0.610760 -0.404934 2.804521
0.654010 -0.425518 2.947086
0.661744 -0.422665 2.927323
0.682480 -0.428068 2.964747
0.715332 -0.440747 3.052556
0.727971 -0.440747 3.052556
0.734567 -0.437150 3.027647
0.748324 -0.437865 3.032596
0.762126 -0.438582 3.037562
0.769349 -0.435551 3.016570
0.783113 -0.436260 3.021483
0.803475 -0.440566 3.051301
0.816444 -0.440747 3.052556
0.830450 -0.441473 3.057587
0.843805 -0.441837 3.060108
0.856475 -0.441837 3.060108
0.869863 -0.442202 3.062634
0.885100 -0.443483 3.071508
0.901175 -0.445141 3.082993
0.914320 -0.445326 3.084274
0.939587 -0.451329 3.125848
0.958586 -0.454199 3.145724
0.964253 -0.450760 3.121903
0.983801 -0.453814 3.143059
1.027272 -0.467680 3.239093
1.044330 -0.469319 3.250444
1.068553 -0.474095 3.283523
1.083107 -0.474515 3.286432
1.096715 -0.474515 3.286432
1.106890 -0.473049 3.276275
1.127926 -0.476202 3.298117
1.133521 -0.472840 3.274829
1.147586 -0.473049 3.276275
1.190588 -0.485041 3.359331
1.195835 -0.481553 3.335174
1.239733 -0.493531 3.418131
1.266132 -0.498351 3.451518
1.344194 -0.523172 3.623420
1.429679 -0.527032 3.650154
1.807541 -0.639293 4.427663
1.818279 -0.636634 4.409247
1.834086 -0.629527 4.360025
1.855409 -0.630639 4.367724
1.863621 -0.627316 4.344709
1.890465 -0.630268 4.365155
1.904059 -0.628788 4.354908
1.936867 -0.633622 4.388387
1.956193 -0.633997 4.390984
1.963915 -0.630639 4.367724
1.985506 -0.631754 4.375450
2.005987 -0.632500 4.380616
1.999340 -0.624755 4.326975
2.062966 -0.638912 4.425023
2.083772 -0.639675 4.430306
2.113472 -0.643130 4.454239
2.124264 -0.640823 4.438255
2.192507 -0.644678 4.464960
2.280988 -0.665087 4.606308
2.277441 -0.658547 4.561010
2.461213 -0.705834 4.888513
2.414646 -0.686830 4.756899
2.421921 -0.683326 4.732629
2.446197 -0.684636 4.741702
2.454849 -0.681587 4.720587
2.477547 -0.682456 4.726601
2.495528 -0.682021 4.723592
2.518292 -0.682891 4.729613
2.536258 -0.682456 4.726601
2.580482 -0.689039 4.772195
2.639279 -0.699383 4.843840
2.609930 -0.686390 4.753852
2.760715 -0.715257 4.953780
2.919886 -0.719098 4.980378
-0.694330 -0.243959 1.739513
-0.676436 -0.242708 1.730588
-0.669271 -0.242708 1.730588
-0.661026 -0.242312 1.727768
-0.654330 -0.242481 1.728976
-0.644169 -0.241357 1.720956
-0.638524 -0.241918 1.724957
-0.630357 -0.241525 1.722154
-0.624821 -0.242143 1.726562
-0.709828 -0.278270 1.984161
-0.711828 -0.289092 2.061323
-0.710796 -0.292176 2.083313
-0.695531 -0.289413 2.063616
-0.700426 -0.295075 2.103987
-0.528464 -0.261687 1.865920
-0.496562 -0.261162 1.862174
-0.489343 -0.261424 1.864045
-0.481988 -0.261621 1.865451
-0.474264 -0.261621 1.865451
-0.468779 -0.262877 1.874403
-0.458932 -0.261687 1.865920
-0.451319 -0.261753 1.866389
-0.443815 -0.261885 1.867328
-0.435535 -0.261556 1.864982
-0.428244 -0.261819 1.866859
-0.420726 -0.261951 1.867798
-0.413304 -0.262149 1.869210
-0.405361 -0.262017 1.868269
-0.397325 -0.261819 1.866859
-0.389792 -0.261951 1.867798
-0.372861 -0.255645 1.822835
-0.372823 -0.260900 1.860307
-0.361496 -0.258310 1.841837
-0.347517 -0.277602 1.979398
-0.339502 -0.277750 1.980454
-0.333169 -0.279316 1.991616
-0.321814 -0.276643 1.972558
-0.314148 -0.277085 1.975709
-0.305886 -0.277011 1.975183
-0.297391 -0.276716 1.973082
-0.289298 -0.276790 1.973607
-0.281202 -0.276864 1.974132
-0.272810 -0.276643 1.972558
-0.264221 -0.276202 1.969417
-0.256271 -0.276422 1.970986
-0.247584 -0.275836 1.966807
-0.234165 -0.269759 1.923474
-0.232716 -0.277528 1.978870
-0.218691 -0.270319 1.927471
-0.156408 -0.464612 3.312841
-0.142691 -0.464612 3.312841
-0.122003 -0.439497 3.133768
-0.110050 -0.443619 3.163156
-0.090690 -0.414964 2.958837
-0.081528 -0.431301 3.075326
-0.065795 -0.412497 2.941246
-0.053490 -0.411518 2.934268
-0.039996 -0.398137 2.838853
-0.028737 -0.405111 2.888580
-0.016796 -0.405585 2.891958
-0.004765 -0.400743 2.857437
0.007138 -0.404796 2.886333
0.018934 -0.401516 2.862949
0.030752 -0.401052 2.859639
0.042576 -0.400898 2.858537
0.054941 -0.404796 2.886333
0.066607 -0.403071 2.874037
0.078689 -0.404010 2.880731
0.091112 -0.406218 2.896473
0.102584 -0.404167 2.881850
0.114784 -0.405111 2.888580
0.128444 -0.410544 2.927323
0.141177 -0.412334 2.940080
0.156449 -0.420667 2.999500
0.170314 -0.424268 3.025178
0.186722 -0.433276 3.089410
0.204888 -0.444947 3.172622
0.219904 -0.448784 3.199984
0.234977 -0.452295 3.225017
0.252724 -0.460296 3.282071
0.263747 -0.455861 3.250444
0.273728 -0.450143 3.209672
0.286769 -0.449754 3.206898
0.299014 -0.448204 3.195850
0.311040 -0.446474 3.183511
0.324083 -0.446282 3.182145
0.336105 -0.444756 3.171266
0.346864 -0.441736 3.149730
0.360058 -0.441924 3.151067
0.373263 -0.442111 3.152406
0.380975 -0.435999 3.108824
0.391225 -0.433096 3.088125
0.404011 -0.433096 3.088125
0.415242 -0.431480 3.076602
0.429762 -0.433276 3.089410
0.443847 -0.434543 3.098440
0.453834 -0.431838 3.079155
0.459153 -0.424961 3.030120
0.465240 -0.419142 2.988628
0.466896 -0.409736 2.921560
0.491771 -0.420667 2.999500
0.479019 -0.399666 2.849755
0.507582 -0.413316 2.947086
0.503391 -0.400281 2.854140
0.516799 -0.401516 2.862949
0.528245 -0.401207 2.860741
0.539051 -0.400435 2.855238
0.550026 -0.399819 2.850850
0.562046 -0.399973 2.851946
0.573855 -0.399973 2.851946
0.586339 -0.400435 2.855238
0.589541 -0.394664 2.814093
0.613049 -0.402448 2.869591
0.608690 -0.391989 2.795014
0.643783 -0.406853 2.901002
0.647692 -0.401826 2.865160
0.662882 -0.403853 2.879613
0.704608 -0.421690 3.006792
0.720268 -0.423578 3.020254
0.728621 -0.421178 3.003142
0.745885 -0.423923 3.022714
0.759949 -0.424788 3.028883
0.767166 -0.421861 3.008011
0.781839 -0.423061 3.016570
0.803144 -0.427756 3.050046
0.816444 -0.428108 3.052556
0.830107 -0.428637 3.056327
0.844501 -0.429521 3.062634
0.858599 -0.430232 3.067699
0.872744 -0.430944 3.072780
0.887672 -0.432017 3.080433
0.903803 -0.433637 3.091985
0.916988 -0.433818 3.093273
0.942365 -0.439683 3.135092
0.963077 -0.443241 3.160461
0.970376 -0.440614 3.141729
0.989248 -0.443241 3.160461
1.035407 -0.457866 3.264744
1.050774 -0.458673 3.270499
1.069026 -0.460704 3.284977
1.085511 -0.461931 3.293725
1.101593 -0.462958 3.301051
1.113775 -0.462341 3.296652
1.134988 -0.465443 3.318767
1.145655 -0.464197 3.309885
1.155751 -0.462752 3.299583
1.177264 -0.465859 3.321738
1.213838 -0.474786 3.385385
1.242594 -0.480485 3.426022
1.270861 -0.485868 3.464408
1.358791 -0.513687 3.662766
1.418774 -0.530443 3.782244
1.478131 -0.546602 3.897460
1.468690 -0.525887 3.749754
1.808620 -0.621331 4.430306
1.819360 -0.618746 4.411869
1.833009 -0.611116 4.357465
1.852139 -0.611475 4.360025
1.860354 -0.608258 4.337091
1.888244 -0.611475 4.360025
1.901827 -0.610041 4.349802
1.934578 -0.614725 4.383203
1.952727 -0.614725 4.383203
1.961606 -0.611834 4.362588
1.983167 -0.612915 4.370296
2.002441 -0.613276 4.372871
1.998175 -0.606486 4.324454
2.060508 -0.619851 4.419752
2.082529 -0.620961 4.427663
2.193826 -0.626568 4.467648
2.279573 -0.645614 4.603451
2.273249 -0.638485 4.552615
2.457975 -0.684691 4.882081
2.417745 -0.667991 4.763006
2.423467 -0.664154 4.735650
2.449327 -0.665854 4.747769
2.456412 -0.662463 4.723592
2.480707 -0.663731 4.732629
2.497117 -0.662885 4.726601
2.521506 -0.664154 4.735650
2.539493 -0.663731 4.732629
2.582143 -0.669710 4.775266
2.641003 -0.679771 4.847004
2.611603 -0.667135 4.756899
2.764406 -0.695675 4.960403
2.914018 -0.697073 4.970370
-0.692544 -0.236148 1.735039
-0.683602 -0.235542 1.730588
-0.676436 -0.235542 1.730588
-0.667869 -0.235049 1.726964
-0.659644 -0.234666 1.724155
-0.654940 -0.235542 1.730588
-0.643423 -0.233960 1.718963
-0.638524 -0.234776 1.724957
-0.630357 -0.234394 1.722154
-0.624821 -0.234994 1.726562
-0.617098 -0.234776 1.724957
-0.719307 -0.276865 2.034200
-0.718566 -0.279857 2.056183
-0.720231 -0.283869 2.085656
-0.528331 -0.253898 1.865451
-0.496437 -0.253388 1.861707
-0.489220 -0.253643 1.863577
-0.481867 -0.253834 1.864982
-0.474145 -0.253834 1.864982
-0.468424 -0.254923 1.872984
-0.458701 -0.253834 1.864982
-0.451206 -0.253961 1.865920
-0.443592 -0.254025 1.866389
-0.435426 -0.253770 1.864513
-0.428136 -0.254025 1.866389
-0.420726 -0.254217 1.867798
-0.413200 -0.254345 1.868739
-0.405259 -0.254217 1.867798
-0.397325 -0.254089 1.866859
-0.389694 -0.254153 1.867328
-0.372678 -0.247976 1.821940
-0.373104 -0.253388 1.861707
-0.361227 -0.250497 1.840467
-0.347609 -0.269478 1.979926
-0.339411 -0.269478 1.979926
-0.333080 -0.270997 1.991082
-0.321643 -0.268333 1.971510
-0.313980 -0.268761 1.974658
-0.305804 -0.268761 1.974658
-0.297312 -0.268475 1.972558
-0.289145 -0.268475 1.972558
-0.281052 -0.268547 1.973082
-0.272665 -0.268333 1.971510
-0.264151 -0.267977 1.968894
-0.256135 -0.268119 1.969940
-0.247453 -0.267551 1.965765
-0.233923 -0.261524 1.921482
-0.232716 -0.269335 1.978870
-0.218068 -0.261591 1.921980
-0.208445 -0.475744 3.495414
-0.154545 -0.445525 3.273385
-0.140065 -0.442596 3.251868
-0.107574 -0.420835 3.091985
-0.091419 -0.405950 2.982622
-0.081426 -0.418048 3.071508
-0.067261 -0.409240 3.006792
-0.053938 -0.402713 2.958837
-0.040367 -0.389963 2.865160
-0.028307 -0.387272 2.845385
-0.016666 -0.390566 2.869591
-0.004739 -0.386827 2.842115
0.007069 -0.389062 2.858537
0.018949 -0.389963 2.865160
0.030670 -0.388165 2.851946
0.042186 -0.385498 2.832352
0.055263 -0.395150 2.903272
0.066762 -0.392083 2.880731
0.078842 -0.392845 2.886333
0.091685 -0.396703 2.914675
0.103916 -0.397327 2.919262
0.116415 -0.398739 2.929634
0.129878 -0.402874 2.960017
0.143162 -0.405787 2.981423
0.157340 -0.410571 3.016570
0.170802 -0.412921 3.033836
0.187190 -0.421538 3.097147
0.206210 -0.434598 3.193099
0.220094 -0.435910 3.202746
0.235489 -0.439897 3.232040
0.253172 -0.447499 3.287888
0.264442 -0.443568 3.259009
0.275037 -0.438942 3.225017
0.288390 -0.438942 3.225017
0.301088 -0.437990 3.218024
0.313190 -0.436287 3.205513
0.326604 -0.436476 3.206898
0.338565 -0.434785 3.194474
0.348640 -0.430889 3.165854
0.362211 -0.431442 3.169912
0.375336 -0.431442 3.169912
0.382417 -0.424729 3.120590
0.392531 -0.421714 3.098440
0.405869 -0.422243 3.102326
0.416451 -0.419960 3.085556
0.429226 -0.419960 3.085556
0.441085 -0.419089 3.079155
0.451959 -0.417357 3.066431
0.456358 -0.409904 3.011673
0.464118 -0.405787 2.981423
0.465247 -0.396236 2.911245
0.491374 -0.407918 2.997077
0.479203 -0.388016 2.850850
0.508188 -0.401592 2.950602
0.503391 -0.388463 2.854140
0.516799 -0.389662 2.862949
0.528653 -0.389662 2.862949
0.539258 -0.388762 2.856337
0.550238 -0.388165 2.851946
0.562046 -0.388165 2.851946
0.573855 -0.388165 2.851946
0.586791 -0.388912 2.857437
0.589989 -0.383303 2.816229
0.613999 -0.391171 2.874037
0.608003 -0.379987 2.791860
0.642026 -0.393764 2.893085
0.645697 -0.388762 2.856337
0.658031 -0.389062 2.858537
0.704037 -0.408909 3.004358
0.719097 -0.410404 3.015345
0.727444 -0.408083 2.998288
0.745582 -0.411240 3.021483
0.759949 -0.412247 3.028883
0.766235 -0.408909 3.004358
0.781204 -0.410237 3.014120
0.802814 -0.414957 3.048793
0.816444 -0.415469 3.052556
0.830107 -0.415982 3.056327
0.844850 -0.417013 3.063899
0.858954 -0.417702 3.068967
0.873468 -0.418568 3.075326
0.888410 -0.419611 3.082993
0.904557 -0.421186 3.094563
0.917753 -0.421362 3.095854
0.944360 -0.427606 3.141729
0.965132 -0.431073 3.167206
0.975332 -0.429789 3.157772
0.994756 -0.432550 3.178057
1.039064 -0.445918 3.276275
1.054492 -0.446707 3.282071
1.073780 -0.449091 3.299583
1.090837 -0.450493 3.309885
1.107505 -0.451702 3.318767
1.121246 -0.451702 3.318767
1.140599 -0.453935 3.335174
1.152854 -0.453323 3.330683
1.166644 -0.453323 3.330683
1.179905 -0.453120 3.329189
1.217170 -0.462033 3.394676
1.248358 -0.468462 3.441912
1.279824 -0.474849 3.488840
1.370971 -0.502990 3.695599
1.440060 -0.522506 3.838988
1.493822 -0.536096 3.938834
1.519000 -0.539244 3.961966
1.498599 -0.526318 3.866995
1.485960 -0.516362 3.793846
1.523476 -0.523861 3.848943
1.713619 -0.583144 4.284505
1.805386 -0.601910 4.422386
1.819360 -0.600478 4.411869
1.851941 -0.605156 4.446233
1.831933 -0.592726 4.354908
1.848880 -0.592378 4.352354
1.858182 -0.589612 4.332027
1.884921 -0.592378 4.352354
1.899600 -0.591338 4.344709
1.933437 -0.596225 4.380616
1.949273 -0.595522 4.375450
1.960454 -0.593422 4.360025
1.980834 -0.594120 4.365155
1.998908 -0.594120 4.365155
1.998175 -0.588581 4.324454
2.056833 -0.600478 4.411869
2.082529 -0.602628 4.427663
2.195148 -0.608437 4.470339
2.273930 -0.625003 4.592056
2.269073 -0.618496 4.544251
2.445106 -0.660998 4.856520
2.419298 -0.648686 4.766065
2.421921 -0.644136 4.732629
2.449327 -0.646196 4.747769
2.456412 -0.642906 4.723592
2.482290 -0.644547 4.735650
2.498709 -0.643725 4.729613
2.521506 -0.644547 4.735650
2.539493 -0.644136 4.732629
2.583806 -0.650357 4.778341
2.647921 -0.661431 4.859701
2.618317 -0.649103 4.769128
2.775538 -0.677855 4.980378
2.917927 -0.677401 4.977037
-0.682963 -0.225796 1.711036
-0.675334 -0.228004 1.727768
-0.670209 -0.228697 1.733013
-0.660258 -0.227739 1.725759
-0.655858 -0.228697 1.733013
-0.646719 -0.228004 1.727768
-0.640012 -0.228164 1.728976
-0.625998 -0.225692 1.710247
-0.617068 -0.225018 1.705139
-0.610008 -0.225018 1.705139
-0.723671 -0.270071 2.046542
-0.528331 -0.246174 1.865451
-0.504272 -0.245741 1.862174
-0.496188 -0.245556 1.860773
-0.489097 -0.245865 1.863109
-0.481746 -0.246050 1.864513
-0.474026 -0.246050 1.864513
-0.468188 -0.247043 1.872039
-0.458586 -0.246050 1.864513
-0.451092 -0.246174 1.865451
-0.443480 -0.246236 1.865920
-0.435207 -0.245926 1.863577
-0.428029 -0.246236 1.865920
-0.420620 -0.246422 1.867328
-0.413096 -0.246546 1.868269
-0.405157 -0.246422 1.867328
-0.397225 -0.246298 1.866389
-0.389498 -0.246298 1.866389
-0.372404 -0.240255 1.820599
-0.372636 -0.245372 1.859374
-0.359888 -0.241977 1.833645
-0.347331 -0.261072 1.978343
-0.339230 -0.261141 1.978870
-0.332991 -0.262682 1.990548
-0.321472 -0.260032 1.970463
-0.313813 -0.260447 1.973607
-0.305642 -0.260447 1.973607
-0.297154 -0.260170 1.971510
-0.288991 -0.260170 1.971510
-0.280903 -0.260239 1.972034
-0.272520 -0.260032 1.970463
-0.264011 -0.259687 1.967850
-0.255999 -0.259825 1.968894
-0.247322 -0.259274 1.964724
-0.233862 -0.253502 1.920985
-0.232592 -0.261002 1.977815
-0.218861 -0.254557 1.928974
-0.278188 -0.456967 3.462792
-0.207177 -0.458464 3.474140
-0.152063 -0.425034 3.220817
-0.137889 -0.422467 3.201365
-0.120930 -0.409912 3.106221
-0.106861 -0.405331 3.071508
-0.092573 -0.398567 3.020254
-0.080891 -0.402664 3.051301
-0.068257 -0.402664 3.051301
-0.054110 -0.391712 2.968305
-0.041016 -0.384182 2.911245
-0.028726 -0.381043 2.887456
-0.016995 -0.386151 2.926168
-0.004770 -0.377517 2.860741
0.007169 -0.382531 2.898736
0.019291 -0.384937 2.916967
0.031076 -0.381339 2.889705
0.042251 -0.374342 2.836683
0.056142 -0.389221 2.949429
0.067390 -0.383730 2.907822
0.079585 -0.384483 2.913531
0.092337 -0.387373 2.935428
0.104244 -0.386456 2.928478
0.116784 -0.387833 2.938916
0.130242 -0.391712 2.968305
0.143393 -0.394076 2.986223
0.157853 -0.399380 3.026412
0.171362 -0.401673 3.043791
0.187268 -0.408885 3.098440
0.206121 -0.421195 3.191726
0.219054 -0.420653 3.187613
0.234265 -0.424298 3.215235
0.251611 -0.431211 3.267619
0.263747 -0.428944 3.250444
0.275037 -0.425589 3.225017
0.288390 -0.425589 3.225017
0.301219 -0.424850 3.219420
0.313325 -0.423198 3.206898
0.326745 -0.423381 3.208285
0.338856 -0.421921 3.197227
0.348342 -0.417425 3.163156
0.362521 -0.418674 3.172622
0.375818 -0.418853 3.173979
0.383223 -0.412676 3.127165
0.392695 -0.409056 3.099734
0.406719 -0.410255 3.108824
0.416451 -0.407185 3.085556
0.427803 -0.405835 3.075326
0.435483 -0.401180 3.040050
0.443708 -0.397274 3.010452
0.445156 -0.387680 2.937752
0.457320 -0.387680 2.937752
0.460550 -0.380303 2.881850
0.490186 -0.394552 2.989832
0.478468 -0.375635 2.846476
0.507381 -0.388757 2.945916
0.502811 -0.376212 2.850850
0.516400 -0.377517 2.860741
0.528245 -0.377517 2.860741
0.538844 -0.376646 2.854140
0.549815 -0.376067 2.849755
0.561615 -0.376067 2.849755
0.573194 -0.375923 2.848661
0.586113 -0.376646 2.854140
0.589989 -0.371643 2.816229
0.613524 -0.378978 2.871812
0.607545 -0.368150 2.789761
0.640777 -0.381043 2.887456
0.645201 -0.376646 2.854140
0.654000 -0.374915 2.841027
0.705466 -0.397274 3.010452
0.719975 -0.398405 3.019025
0.727150 -0.395509 2.997077
0.744672 -0.398243 3.017797
0.759639 -0.399543 3.027647
0.766235 -0.396469 3.004358
0.781204 -0.397758 3.014120
0.802155 -0.402003 3.046290
0.815773 -0.402499 3.050046
0.830107 -0.403328 3.056327
0.844850 -0.404327 3.063899
0.858599 -0.404828 3.067699
0.874192 -0.406171 3.077878
0.889518 -0.407354 3.086840
0.906068 -0.409056 3.099734
0.919287 -0.409227 3.101029
0.946765 -0.415653 3.149730
0.968853 -0.419571 3.179419
0.980757 -0.419033 3.175337
1.003783 -0.423198 3.206898
1.040902 -0.433118 3.282071
1.056829 -0.434078 3.289345
1.075693 -0.436205 3.305462
1.090837 -0.436788 3.309885
1.109987 -0.438942 3.326205
1.123759 -0.438942 3.326205
1.142139 -0.440720 3.339677
1.154927 -0.440323 3.336674
1.167692 -0.439928 3.333676
1.183622 -0.440720 3.339677
1.194762 -0.439730 3.332179
1.242594 -0.452114 3.426022
1.276822 -0.459324 3.480658
1.379213 -0.490621 3.717817
1.450566 -0.510307 3.866995
1.497000 -0.520893 3.947214
1.528794 -0.526211 3.987514
1.507239 -0.513249 3.889289
1.502863 -0.506349 3.837003
1.529824 -0.510041 3.864981
1.710656 -0.564426 4.277097
1.801093 -0.582211 4.411869
1.818279 -0.581865 4.409247
1.846409 -0.584994 4.432953
1.829786 -0.574021 4.349802
1.844552 -0.573013 4.342167
1.854933 -0.570676 4.324454
1.881610 -0.573348 4.344709
1.897378 -0.572678 4.339627
1.933437 -0.578087 4.380616
1.948124 -0.577065 4.372871
1.960454 -0.575370 4.360025
1.982000 -0.576386 4.367724
1.997732 -0.575708 4.362588
2.000507 -0.571341 4.329500
2.058057 -0.582558 4.414493
2.085017 -0.584994 4.432953
2.196471 -0.590283 4.473034
2.269717 -0.604867 4.583547
2.269073 -0.599681 4.544251
2.445106 -0.640890 4.856520
2.423969 -0.630167 4.775266
2.421921 -0.624540 4.732629
2.450895 -0.626939 4.750809
2.459543 -0.624142 4.729613
2.485462 -0.625738 4.741702
2.501898 -0.624939 4.735650
2.524728 -0.625738 4.741702
2.544361 -0.625738 4.741702
2.585471 -0.630979 4.781419
2.644458 -0.640470 4.853344
2.616635 -0.628953 4.766065
2.775538 -0.657234 4.980378
2.914018 -0.655914 4.970370
-0.643913 -0.222352 1.739513
-0.631089 -0.220389 1.724155
-0.621639 -0.219573 1.717769
-0.614954 -0.219725 1.718963
-0.736673 -0.266298 2.083313
-0.736735 -0.269476 2.108171
-0.718011 -0.265776 2.079227
-0.702564 -0.266448 2.084484
-0.528331 -0.238450 1.865451
-0.504145 -0.237971 1.861707
-0.496064 -0.237792 1.860307
-0.488974 -0.238091 1.862641
-0.481625 -0.238270 1.864045
-0.473907 -0.238270 1.864045
-0.468070 -0.239232 1.871567
-0.458470 -0.238270 1.864045
-0.450979 -0.238390 1.864982
-0.443369 -0.238450 1.865451
-0.435098 -0.238151 1.863109
-0.427921 -0.238450 1.865451
-0.420514 -0.238630 1.866859
-0.413096 -0.238810 1.868269
-0.405157 -0.238690 1.867328
-0.397125 -0.238510 1.865920
-0.389400 -0.238510 1.865920
-0.372221 -0.232603 1.819706
-0.372823 -0.237792 1.860307
-0.359888 -0.234384 1.833645
-0.357716 -0.254440 1.990548
-0.346961 -0.252611 1.976235
-0.339050 -0.252813 1.977815
-0.332812 -0.254304 1.989481
-0.321301 -0.251739 1.969417
-0.313647 -0.252141 1.972558
-0.305479 -0.252141 1.972558
-0.296996 -0.251873 1.970463
-0.288837 -0.251873 1.970463
-0.280753 -0.251940 1.970986
-0.272448 -0.251806 1.969940
-0.263871 -0.251406 1.966807
-0.255931 -0.251606 1.968372
-0.247191 -0.251007 1.963684
-0.233620 -0.245295 1.918997
-0.232344 -0.252544 1.975709
-0.219260 -0.247019 1.932490
-0.278578 -0.443249 3.467646
-0.207177 -0.444080 3.474140
-0.165399 -0.411699 3.220817
-0.150884 -0.408507 3.195850
-0.135723 -0.402783 3.151067
-0.120076 -0.394245 3.084274
-0.106202 -0.390191 3.052556
-0.092837 -0.387165 3.028883
-0.080891 -0.390030 3.051301
-0.068257 -0.390030 3.051301
-0.054415 -0.381558 2.985021
-0.041653 -0.377910 2.956479
-0.029377 -0.377459 2.952950
-0.017492 -0.384965 3.011673
-0.004930 -0.377910 2.956479
0.019702 -0.380792 2.979030
0.031972 -0.380030 2.973062
0.041614 -0.357136 2.793962
0.056865 -0.381865 2.987425
0.067895 -0.374478 2.929634
0.079930 -0.374035 2.926168
0.092667 -0.376560 2.945916
0.104699 -0.375963 2.941246
0.117062 -0.376560 2.945916
0.130451 -0.380030 2.973062
0.143798 -0.382790 2.994658
0.158240 -0.387798 3.033836
0.171503 -0.389390 3.046290
0.187424 -0.396387 3.101029
0.207012 -0.409743 3.205513
0.219054 -0.407454 3.187613
0.234366 -0.411163 3.216629
0.250948 -0.416581 3.259009
0.263978 -0.415850 3.253294
0.275515 -0.412953 3.230633
0.289018 -0.413133 3.232040
0.302005 -0.412594 3.227822
0.313868 -0.410629 3.212451
0.327453 -0.410985 3.215235
0.339003 -0.408859 3.198605
0.347602 -0.403468 3.156428
0.362676 -0.405712 3.173979
0.376462 -0.406407 3.179419
0.384194 -0.400741 3.135092
0.393024 -0.396553 3.102326
0.408430 -0.399055 3.121903
0.417318 -0.395231 3.091985
0.427095 -0.392451 3.070237
0.434061 -0.387323 3.030120
0.442989 -0.384185 3.005574
0.447459 -0.377459 2.952950
0.458955 -0.376859 2.948257
0.463792 -0.370964 2.902137
0.489988 -0.382019 2.988628
0.479019 -0.364268 2.849755
0.507582 -0.376709 2.947086
0.502811 -0.364408 2.850850
0.516201 -0.365531 2.859639
0.528245 -0.365672 2.860741
0.538636 -0.364688 2.853042
0.549815 -0.364268 2.849755
0.561615 -0.364268 2.849755
0.573194 -0.364128 2.848661
0.585663 -0.364548 2.851946
0.589989 -0.359982 2.816229
0.612812 -0.366662 2.868482
0.607089 -0.356331 2.787664
0.639533 -0.368370 2.881850
0.643468 -0.363849 2.846476
0.650761 -0.361354 2.826957
0.708051 -0.386219 3.021483
0.720855 -0.386376 3.022714
0.728916 -0.384030 3.004358
0.745582 -0.386219 3.021483
0.759949 -0.387165 3.028883
0.766235 -0.384030 3.004358
0.780887 -0.385121 3.012896
0.801497 -0.389071 3.043791
0.815773 -0.389870 3.050046
0.831477 -0.391318 3.061371
0.845898 -0.392126 3.067699
0.861448 -0.393428 3.077878
0.877833 -0.395066 3.090697
0.892861 -0.396056 3.098440
0.909869 -0.397883 3.112736
0.923144 -0.398050 3.114042
0.949182 -0.403640 3.157772
0.971768 -0.407629 3.188983
0.984549 -0.407454 3.187613
1.009016 -0.412056 3.223616
1.038605 -0.418603 3.274829
1.057297 -0.420645 3.290804
1.074257 -0.421955 3.301051
1.089865 -0.422707 3.306935
1.110983 -0.425551 3.329189
1.125272 -0.425742 3.330683
1.143168 -0.427276 3.342686
1.157008 -0.427276 3.342686
1.170321 -0.427084 3.341181
1.188973 -0.428822 3.354775
1.183600 -0.421955 3.301051
1.243168 -0.438131 3.427604
1.280426 -0.446168 3.490481
1.379905 -0.475466 3.719681
1.456638 -0.496365 3.883183
1.499393 -0.505356 3.953523
1.518189 -0.506165 3.959852
1.491603 -0.491989 3.848943
1.493595 -0.487438 3.813342
1.527437 -0.493268 3.858951
1.690198 -0.540179 4.225947
1.789208 -0.565963 4.427663
1.793628 -0.561607 4.393584
1.817199 -0.563274 4.406629
1.842008 -0.565288 4.422386
1.825505 -0.554710 4.339627
1.839171 -0.553415 4.329500
1.850619 -0.551485 4.314397
1.878311 -0.554386 4.337091
1.894055 -0.553738 4.332027
1.932296 -0.559619 4.378031
1.945831 -0.558301 4.367724
1.960454 -0.557317 4.360025
1.983167 -0.558630 4.370296
1.997732 -0.557645 4.362588
2.006359 -0.555034 4.342167
2.062966 -0.565625 4.425023
2.092517 -0.568677 4.448899
2.121111 -0.571418 4.470339
2.135761 -0.570387 4.462275
2.204444 -0.573838 4.489270
2.285243 -0.589897 4.614902
2.280244 -0.583725 4.566623
2.459593 -0.624459 4.885295
2.438089 -0.613951 4.803083
2.428116 -0.606492 4.744733
2.457187 -0.608828 4.763006
2.465830 -0.606105 4.741702
2.491832 -0.607658 4.753852
2.509907 -0.607269 4.750809
2.531198 -0.607658 4.753852
2.550881 -0.607658 4.753852
2.592151 -0.612761 4.793775
2.646188 -0.620781 4.856520
2.618317 -0.609610 4.769128
2.777402 -0.637041 4.983723
2.909026 -0.638757 4.997147
2.910120 -0.634484 4.963721
-0.721879 -0.252498 2.041475
-0.723579 -0.256091 2.070525
-0.712620 -0.255236 2.063616
-0.717849 -0.260229 2.103987
-0.704147 -0.258398 2.089179
-0.700824 -0.260377 2.105181
-0.528198 -0.230668 1.864982
-0.504019 -0.230205 1.861240
-0.495939 -0.230032 1.859840
-0.488729 -0.230263 1.861707
-0.481504 -0.230494 1.863577
-0.473907 -0.230552 1.864045
-0.467952 -0.231424 1.871095
-0.458470 -0.230552 1.864045
-0.450979 -0.230668 1.864982
-0.443257 -0.230668 1.864982
-0.434989 -0.230379 1.862641
-0.427813 -0.230668 1.864982
-0.420514 -0.230900 1.866859
-0.413096 -0.231075 1.868269
-0.405157 -0.230958 1.867328
-0.397125 -0.230784 1.865920
-0.389204 -0.230668 1.864982
-0.372039 -0.224958 1.818814
-0.372730 -0.230032 1.859840
-0.360244 -0.227017 1.835460
-0.357908 -0.246331 1.991616
-0.347424 -0.244754 1.978870
-0.339230 -0.244754 1.978870
-0.332991 -0.246199 1.990548
-0.321387 -0.243650 1.969940
-0.313730 -0.244038 1.973082
-0.305560 -0.244038 1.973082
-0.296996 -0.243714 1.970463
-0.288837 -0.243714 1.970463
-0.280753 -0.243779 1.970986
-0.272448 -0.243650 1.969940
-0.263871 -0.243262 1.966807
-0.255863 -0.243391 1.967850
-0.247126 -0.242812 1.963165
-0.233319 -0.237042 1.916519
-0.232035 -0.244038 1.973082
-0.218918 -0.238645 1.929476
-0.279230 -0.429896 3.475767
-0.231081 -0.448158 3.623420
-0.213164 -0.442114 3.574549
-0.197603 -0.440417 3.560827
-0.177246 -0.426897 3.451518
-0.155574 -0.407561 3.295188
-0.135550 -0.389240 3.147058
-0.119579 -0.379896 3.071508
-0.106202 -0.377552 3.052556
-0.092011 -0.371290 3.001927
-0.080395 -0.375083 3.032596
-0.068005 -0.376005 3.040050
-0.054371 -0.368902 2.982622
-0.041737 -0.366399 2.962380
-0.029237 -0.363496 2.938916
-0.017372 -0.369943 2.991037
-0.004910 -0.364218 2.944747
0.056546 -0.367425 2.970682
0.067495 -0.360215 2.912387
0.079367 -0.359369 2.905545
0.092046 -0.361920 2.926168
0.104162 -0.361920 2.926168
0.116461 -0.362492 2.930791
0.129775 -0.365814 2.957658
0.143393 -0.369347 2.986223
0.157918 -0.374471 3.027647
0.171012 -0.375697 3.037562
0.186956 -0.382588 3.093273
0.207101 -0.396642 3.206898
0.218960 -0.394087 3.186244
0.234468 -0.398018 3.218024
0.250618 -0.402556 3.254721
